ply
format ascii 1.0
element vertex 1205
property float x
property float y
property float z
property uchar red
property uchar green
property uchar blue
end_header
-0.048932 0.045146 0.262678 154 172 186
-0.050473 0.045275 0.261194 157 176 190
-0.052011 0.045401 0.259723 155 173 185
-0.053544 0.045524 0.258264 155 173 185
-0.054248 0.045991 0.256276 154 174 185
-0.054952 0.046458 0.254287 156 176 187
-0.056476 0.046575 0.252852 158 176 188
-0.057178 0.047040 0.250870 156 174 186
-0.058696 0.047154 0.249453 155 173 185
-0.060210 0.047264 0.248049 157 173 186
-0.061719 0.047371 0.246656 159 177 189
-0.062414 0.047832 0.244692 159 175 188
-0.063917 0.047936 0.243318 161 177 190
-0.065416 0.048036 0.241956 158 176 188
-0.066910 0.048133 0.240606 160 176 189
-0.067599 0.048590 0.238660 159 175 188
-0.069087 0.048683 0.237328 159 175 188
-0.070571 0.048774 0.236009 159 175 188
-0.072050 0.048861 0.234701 159 175 188
-0.073526 0.048946 0.233406 159 175 188
-0.074206 0.049397 0.231484 162 178 191
-0.074886 0.049848 0.229562 160 176 189
-0.075567 0.050299 0.227640 160 178 190
-0.077031 0.050377 0.226375 160 178 190
-0.078491 0.050452 0.225122 162 178 191
-0.079947 0.050523 0.223881 162 178 191
-0.081398 0.050593 0.222653 164 180 193
-0.082070 0.051038 0.220755 161 177 190
-0.083515 0.051103 0.219545 161 177 190
-0.084956 0.051165 0.218346 161 177 190
-0.086392 0.051224 0.217160 161 177 190
-0.087058 0.051665 0.215281 162 178 191
-0.087723 0.052106 0.213401 160 176 189
-0.088388 0.052547 0.211522 163 179 192
-0.089814 0.052599 0.210366 166 184 194
-0.090477 0.053039 0.208492 181 197 210
-0.007110 0.041698 0.310839 148 164 177
-0.007874 0.042204 0.308681 148 164 177
-0.009526 0.042401 0.306881 147 163 176
-0.012060 0.042283 0.305456 149 165 178
-0.014585 0.042160 0.304056 151 167 180
-0.015338 0.042659 0.301928 152 168 183
-0.016971 0.042843 0.300182 154 168 181
-0.018600 0.043024 0.298449 150 166 179
-0.019349 0.043520 0.296333 152 168 181
-0.020971 0.043697 0.294617 150 168 180
-0.021718 0.044192 0.292507 153 171 185
-0.024202 0.044042 0.291223 152 170 184
-0.025811 0.044210 0.289543 154 170 185
-0.027416 0.044375 0.287876 154 170 185
-0.029017 0.044538 0.286222 152 168 181
-0.029753 0.045026 0.284142 155 171 184
-0.031347 0.045184 0.282505 152 168 181
-0.032937 0.045339 0.280881 154 170 183
-0.034522 0.045492 0.279268 154 170 185
-0.036104 0.045641 0.277668 153 171 185
-0.037680 0.045788 0.276080 154 172 186
-0.039253 0.045932 0.274504 152 170 184
-0.039976 0.046411 0.272460 155 171 184
-0.041543 0.046551 0.270903 154 170 183
-0.043105 0.046688 0.269357 154 170 183
-0.043824 0.047165 0.267326 152 168 181
-0.045379 0.047297 0.265798 155 171 184
-0.047765 0.047081 0.264792 155 171 184
-0.049309 0.047207 0.263295 155 173 185
-0.050850 0.047329 0.261810 155 173 185
-0.051558 0.047799 0.259809 156 172 185
-0.053092 0.047917 0.258342 153 171 183
-0.053798 0.048385 0.256348 154 172 184
-0.054504 0.048853 0.254353 157 175 187
-0.056030 0.048966 0.252910 157 173 186
-0.057551 0.049076 0.251480 156 172 185
-0.059068 0.049183 0.250061 155 171 184
-0.059768 0.049647 0.248085 155 171 184
-0.061278 0.049749 0.246684 158 176 188
-0.062784 0.049849 0.245296 159 175 188
-0.064286 0.049946 0.243920 158 174 187
-0.065784 0.050040 0.242556 159 175 188
-0.066475 0.050498 0.240604 163 179 192
-0.067966 0.050588 0.239258 159 175 188
-0.069453 0.050675 0.237925 160 176 189
-0.071731 0.050388 0.237222 160 176 189
-0.072413 0.050841 0.235294 159 175 188
-0.073887 0.050919 0.233997 160 176 189
-0.074568 0.051370 0.232075 161 177 190
-0.075248 0.051821 0.230153 162 178 191
-0.075928 0.052272 0.228231 161 178 188
-0.077391 0.052344 0.226964 160 177 187
-0.078070 0.052793 0.225048 164 181 191
-0.079526 0.052861 0.223800 161 178 188
-0.080979 0.052925 0.222563 161 179 189
-0.082427 0.052986 0.221339 161 179 189
-0.083099 0.053432 0.219441 161 179 189
-0.084541 0.053489 0.218235 162 180 190
-0.085978 0.053543 0.217041 163 180 190
-0.086646 0.053986 0.215155 162 179 189
-0.088077 0.054036 0.213979 160 177 187
-0.088742 0.054477 0.212100 165 182 192
-0.090166 0.054522 0.210942 167 183 196
-0.008281 0.044420 0.309345 148 162 175
-0.009931 0.044610 0.307543 149 163 176
-0.012463 0.044480 0.306115 151 165 178
-0.014103 0.044664 0.304343 149 165 178
-0.015739 0.044844 0.302583 153 169 184
-0.017371 0.045022 0.300835 150 166 179
-0.018122 0.045520 0.298713 150 166 179
-0.019747 0.045693 0.296984 153 169 182
-0.020496 0.046189 0.294868 151 167 180
-0.022115 0.046358 0.293156 152 168 181
-0.023729 0.046525 0.291457 152 168 181
-0.025339 0.046688 0.289770 152 168 181
-0.026945 0.046848 0.288095 153 169 182
-0.028547 0.047006 0.286432 153 169 182
-0.030144 0.047161 0.284782 154 170 183
-0.031737 0.047313 0.283143 152 168 181
-0.033326 0.047462 0.281517 153 169 182
-0.034910 0.047608 0.279902 152 168 181
-0.036490 0.047751 0.278300 154 170 183
-0.038066 0.047892 0.276710 154 170 183
-0.039638 0.048030 0.275132 154 170 183
-0.040361 0.048509 0.273089 156 172 185
-0.041084 0.048989 0.271046 154 170 183
-0.042647 0.049121 0.269492 155 171 184
-0.044206 0.049250 0.267950 155 171 184
-0.045760 0.049376 0.266421 156 172 185
-0.047310 0.049500 0.264904 155 171 184
-0.048856 0.049620 0.263399 156 172 185
-0.050398 0.049738 0.261905 155 171 184
-0.051935 0.049853 0.260425 155 171 184
-0.052643 0.050323 0.258424 155 171 184
-0.054174 0.050433 0.256961 157 173 186
-0.054880 0.050901 0.254966 155 171 184
-0.056404 0.051008 0.253522 156 172 185
-0.057924 0.051111 0.252089 158 174 187
-0.058626 0.051577 0.250107 156 172 185
-0.060140 0.051676 0.248693 157 173 186
-0.061649 0.051772 0.247290 159 175 188
-0.062346 0.052235 0.245320 159 175 188
-0.063849 0.052327 0.243936 159 175 188
-0.065348 0.052416 0.242564 159 175 188
-0.066842 0.052503 0.241205 161 177 190
-0.068332 0.052586 0.239857 160 176 189
-0.069818 0.052667 0.238522 159 175 188
-0.071299 0.052745 0.237198 159 175 188
-0.072776 0.052820 0.235887 160 176 189
-0.073459 0.053273 0.233959 161 177 190
-0.074929 0.053344 0.232666 162 179 189
-0.075610 0.053795 0.230744 164 181 191
-0.076290 0.054246 0.228822 165 179 190
-0.076970 0.054697 0.226900 161 178 188
-0.078430 0.054760 0.225638 163 180 190
-0.079886 0.054821 0.224387 160 177 187
-0.081337 0.054879 0.223149 161 179 189
-0.082011 0.055326 0.221245 161 179 189
-0.083456 0.055380 0.220025 161 179 189
-0.084128 0.055825 0.218127 161 179 189
-0.085566 0.055875 0.216925 161 179 189
-0.087000 0.055921 0.215735 162 179 189
-0.088430 0.055965 0.214557 165 182 192
-0.089096 0.056406 0.212678 165 179 190
-0.089761 0.056847 0.210798 170 186 199
-0.009451 0.047143 0.307850 152 166 179
-0.011982 0.047002 0.306413 152 166 179
-0.014505 0.046855 0.304999 151 165 178
-0.016140 0.047029 0.303237 155 169 182
-0.016893 0.047528 0.301109 153 167 180
-0.017646 0.048028 0.298981 151 165 178
-0.019272 0.048196 0.297244 151 167 180
-0.020024 0.048694 0.295122 152 168 181
-0.021643 0.048858 0.293403 152 168 181
-0.023259 0.049020 0.291695 152 168 181
-0.024870 0.049178 0.290000 153 169 182
-0.027339 0.048996 0.288738 153 169 182
-0.028079 0.049487 0.286647 152 168 181
-0.029678 0.049637 0.284988 153 169 182
-0.031272 0.049784 0.283342 151 167 180
-0.033715 0.049584 0.282153 154 170 183
-0.035298 0.049724 0.280536 156 170 183
-0.036028 0.050208 0.278475 155 169 182
-0.038452 0.049996 0.277340 156 170 183
-0.040022 0.050127 0.275761 156 170 183
-0.040746 0.050607 0.273717 154 170 183
-0.041469 0.051086 0.271674 155 171 184
-0.043031 0.051212 0.270119 155 171 184
-0.043752 0.051690 0.268081 153 169 182
-0.045307 0.051812 0.266544 154 170 183
-0.046858 0.051930 0.265019 153 169 182
-0.048405 0.052046 0.263506 155 171 184
-0.049947 0.052159 0.262005 156 172 185
-0.051486 0.052269 0.260516 155 171 184
-0.053020 0.052377 0.259039 156 172 185
-0.053728 0.052846 0.257038 156 172 185
-0.055255 0.052949 0.255580 156 172 185
-0.056778 0.053049 0.254133 157 171 184
-0.058297 0.053147 0.252699 157 173 186
-0.058999 0.053612 0.250717 155 171 184
-0.060512 0.053705 0.249301 156 172 185
-0.061211 0.054169 0.247324 162 176 189
-0.062717 0.054258 0.245926 158 172 185
-0.064219 0.054344 0.244540 160 176 189
-0.065716 0.054427 0.243167 159 175 188
-0.067209 0.054507 0.241805 158 174 187
-0.068698 0.054585 0.240456 158 174 187
-0.070183 0.054659 0.239118 158 174 187
-0.071663 0.054731 0.237793 158 176 188
-0.073139 0.054800 0.236480 160 177 187
-0.073822 0.055252 0.234552 159 176 186
-0.074504 0.055705 0.232624 161 178 188
-0.075187 0.056157 0.230696 162 179 189
-0.076652 0.056219 0.229414 162 179 189
-0.077332 0.056670 0.227492 160 178 188
-0.078791 0.056727 0.226227 161 179 189
-0.080245 0.056782 0.224975 162 180 190
-0.081696 0.056834 0.223734 163 180 190
-0.082369 0.057281 0.221831 162 179 189
-0.083043 0.057727 0.219927 165 183 193
-0.084485 0.057774 0.218711 165 182 192
-0.085922 0.057817 0.217507 163 181 191
-0.086592 0.058261 0.215615 161 179 189
-0.088023 0.058300 0.214430 167 184 194
-0.089449 0.058336 0.213256 166 183 193
-0.090115 0.058777 0.211377 176 190 201
-0.011504 0.049535 0.306714 151 167 180
-0.014026 0.049377 0.305291 149 165 178
-0.016540 0.049214 0.303892 152 168 181
-0.017293 0.049713 0.301764 152 168 181
-0.018047 0.050213 0.299636 150 166 179
-0.018800 0.050712 0.297508 153 169 182
-0.020423 0.050873 0.295774 152 166 179
-0.021174 0.051371 0.293652 152 168 181
-0.023656 0.051186 0.292344 152 168 181
-0.025266 0.051338 0.290648 151 167 180
-0.026011 0.051832 0.288544 156 170 183
-0.028473 0.051634 0.287290 156 170 183
-0.030070 0.051778 0.285630 154 170 183
-0.031663 0.051919 0.283981 153 169 182
-0.033252 0.052057 0.282345 154 170 183
-0.034836 0.052192 0.280721 154 170 183
-0.036416 0.052325 0.279109 154 170 183
-0.037992 0.052454 0.277509 155 171 184
-0.039563 0.052581 0.275921 153 169 182
-0.041130 0.052705 0.274346 154 170 183
-0.041853 0.053184 0.272303 155 171 184
-0.042577 0.053664 0.270259 154 170 183
-0.044135 0.053782 0.268708 155 171 184
-0.045689 0.053897 0.267169 155 171 184
-0.047239 0.054010 0.265642 154 170 183
-0.048785 0.054119 0.264127 154 170 183
-0.049500 0.054593 0.262108 156 172 185
-0.051039 0.054698 0.260611 155 171 184
-0.052574 0.054801 0.259126 155 171 184
-0.054104 0.054900 0.257654 154 170 183
-0.054813 0.055370 0.255653 155 171 184
-0.056337 0.055465 0.254199 157 173 186
-0.057857 0.055558 0.252757 159 175 188
-0.059372 0.055648 0.251326 156 172 185
-0.060884 0.055734 0.249908 158 175 185
-0.061583 0.056198 0.247932 161 175 186
-0.063088 0.056281 0.246532 159 176 186
-0.064589 0.056361 0.245145 158 175 185
-0.066085 0.056437 0.243769 159 176 186
-0.066778 0.056897 0.241811 159 177 187
-0.068268 0.056970 0.240453 161 178 188
-0.069754 0.057039 0.239108 158 175 185
-0.071235 0.057106 0.237775 160 177 187
-0.072712 0.057170 0.236454 159 177 187
-0.074184 0.057232 0.235145 160 178 188
-0.074867 0.057684 0.233217 161 179 189
-0.075549 0.058137 0.231289 159 177 187
-0.076232 0.058589 0.229361 163 180 190
-0.077694 0.058643 0.228083 163 177 188
-0.078374 0.059094 0.226161 166 180 191
-0.079830 0.059144 0.224900 164 178 189
-0.081281 0.059191 0.223652 164 178 189
-0.082728 0.059235 0.222416 161 178 188
-0.083402 0.059682 0.220512 165 182 192
-0.084842 0.059722 0.219295 162 179 189
-0.085514 0.060167 0.217397 162 179 189
-0.086948 0.060203 0.216197 162 179 189
-0.088378 0.060236 0.215010 165 182 192
-0.089803 0.060266 0.213834 165 182 192
-0.090468 0.060707 0.211955 176 190 201
-0.011027 0.052081 0.307020 149 165 178
-0.013550 0.051912 0.305587 150 168 180
-0.016064 0.051738 0.304178 152 166 179
-0.016819 0.052239 0.302044 150 166 179
-0.017575 0.052739 0.299909 152 168 181
-0.019201 0.052897 0.298162 155 169 182
-0.019954 0.053396 0.296034 153 167 180
-0.021573 0.053549 0.294305 155 169 182
-0.023189 0.053700 0.292588 154 168 181
-0.024800 0.053847 0.290883 153 167 180
-0.026407 0.053992 0.289191 155 169 182
-0.028009 0.054134 0.287510 155 167 181
-0.029607 0.054273 0.285842 155 169 182
-0.031201 0.054409 0.284186 151 167 180
-0.033642 0.054186 0.282983 153 169 182
-0.035225 0.054315 0.281357 153 169 182
-0.036804 0.054441 0.279743 153 169 182
-0.038378 0.054564 0.278141 154 170 183
-0.039949 0.054685 0.276552 153 169 182
-0.040674 0.055166 0.274502 154 170 183
-0.042238 0.055282 0.272931 153 169 182
-0.042961 0.055761 0.270888 153 169 182
-0.043684 0.056241 0.268845 154 170 183
-0.045240 0.056351 0.267298 156 172 185
-0.046791 0.056459 0.265763 155 171 184
-0.048337 0.056564 0.264240 154 170 183
-0.049880 0.056666 0.262729 156 172 185
-0.050594 0.057140 0.260710 156 172 185
-0.052130 0.057237 0.259217 155 171 184
-0.053662 0.057332 0.257737 156 172 185
-0.055189 0.057424 0.256268 156 172 185
-0.056712 0.057513 0.254812 155 171 184
-0.058231 0.057600 0.253368 158 174 187
-0.059745 0.057683 0.251936 156 173 183
-0.060447 0.058148 0.249954 156 173 183
-0.061955 0.058228 0.248540 158 175 185
-0.063459 0.058304 0.247138 158 175 185
-0.064156 0.058766 0.245168 158 175 185
-0.065654 0.058838 0.243784 160 177 187
-0.067147 0.058908 0.242413 159 176 186
-0.068635 0.058974 0.241054 160 178 188
-0.070120 0.059038 0.239707 158 176 186
-0.070809 0.059494 0.237761 162 179 189
-0.072287 0.059554 0.236432 160 177 187
-0.073760 0.059610 0.235115 160 177 187
-0.074445 0.060064 0.233181 161 178 188
-0.075912 0.060116 0.231882 161 178 188
-0.076595 0.060569 0.229954 161 179 189
-0.078056 0.060616 0.228674 162 179 189
-0.078736 0.061067 0.226752 162 179 189
-0.080190 0.061111 0.225490 163 180 190
-0.081640 0.061152 0.224240 163 177 188
-0.082316 0.061600 0.222330 166 180 191
-0.082992 0.062048 0.220420 166 183 193
-0.084434 0.062083 0.219194 165 182 192
-0.085871 0.062116 0.217981 166 180 191
-0.087304 0.062145 0.216779 166 180 191
-0.088733 0.062172 0.215590 165 182 192
-0.090157 0.062195 0.214412 165 182 192
-0.090822 0.062636 0.212533 177 191 204
-0.013076 0.054460 0.305886 150 166 179
-0.014713 0.054620 0.304100 155 167 181
-0.016347 0.054776 0.302327 152 166 179
-0.017976 0.054930 0.300566 152 166 179
-0.018732 0.055431 0.298432 154 168 181
-0.020354 0.055581 0.296689 154 168 181
-0.021973 0.055728 0.294958 154 168 181
-0.023587 0.055872 0.293239 155 169 182
-0.025197 0.056013 0.291532 153 167 180
-0.025944 0.056509 0.289423 156 168 182
-0.027547 0.056646 0.287734 156 168 182
-0.030001 0.056420 0.286485 155 167 181
-0.030741 0.056911 0.284394 154 168 181
-0.033182 0.056677 0.283181 155 167 181
-0.034766 0.056801 0.281547 154 170 183
-0.036346 0.056923 0.279925 153 169 182
-0.037922 0.057041 0.278316 153 169 182
-0.039493 0.057157 0.276718 153 169 182
-0.041060 0.057270 0.275133 154 170 183
-0.041785 0.057751 0.273084 154 170 183
-0.043346 0.057859 0.271516 154 170 183
-0.044069 0.058339 0.269473 154 170 183
-0.044792 0.058818 0.267430 155 171 184
-0.046344 0.058921 0.265887 156 172 185
-0.047892 0.059021 0.264356 154 170 183
-0.049435 0.059118 0.262837 155 171 184
-0.050974 0.059212 0.261331 155 172 182
-0.052509 0.059304 0.259836 154 171 181
-0.054040 0.059392 0.258354 159 173 184
-0.055566 0.059478 0.256884 158 172 183
-0.057088 0.059561 0.255426 157 171 184
-0.058605 0.059641 0.253980 160 174 185
-0.059309 0.060108 0.251991 154 171 181
-0.060820 0.060184 0.250563 159 173 184
-0.062327 0.060257 0.249148 157 174 184
-0.063027 0.060721 0.247171 159 176 186
-0.063727 0.061184 0.245195 158 175 185
-0.065225 0.061252 0.243803 162 176 187
-0.066719 0.061316 0.242424 164 176 188
-0.068209 0.061378 0.241057 161 175 186
-0.069694 0.061436 0.239702 159 177 187
-0.071175 0.061492 0.238359 160 177 187
-0.071864 0.061949 0.236413 161 175 186
-0.073339 0.062001 0.235088 164 178 189
-0.074025 0.062456 0.233148 163 177 188
-0.075494 0.062503 0.231842 163 177 188
-0.076958 0.062548 0.230547 163 180 190
-0.077640 0.063000 0.228619 162 179 189
-0.079098 0.063041 0.227343 162 179 189
-0.080551 0.063078 0.226079 165 179 190
-0.081229 0.063528 0.224163 161 178 188
-0.082676 0.063561 0.222917 165 179 190
-0.083352 0.064009 0.221007 166 180 191
-0.084792 0.064038 0.219780 163 180 190
-0.086228 0.064064 0.218564 165 182 192
-0.087660 0.064087 0.217361 162 179 189
-0.089088 0.064107 0.216170 167 184 194
-0.090511 0.064125 0.214990 167 184 194
-0.091176 0.064566 0.213111 184 196 210
-0.012604 0.057020 0.306189 151 165 178
-0.013368 0.057526 0.304031 156 168 182
-0.015005 0.057680 0.302243 156 168 182
-0.017507 0.057476 0.300845 153 165 179
-0.019133 0.057622 0.299088 154 166 180
-0.020755 0.057766 0.297343 154 166 180
-0.021508 0.058265 0.295215 153 165 179
-0.023985 0.058045 0.293890 155 167 181
-0.025594 0.058180 0.292181 154 166 180
-0.026341 0.058675 0.290072 158 170 184
-0.027943 0.058806 0.288381 156 168 182
-0.029541 0.058934 0.286703 157 169 183
-0.031135 0.059059 0.285037 155 167 181
-0.032724 0.059181 0.283383 153 165 179
-0.034310 0.059300 0.281741 157 171 184
-0.035890 0.059417 0.280111 154 168 181
-0.037467 0.059530 0.278494 154 170 183
-0.039039 0.059641 0.276888 155 169 182
-0.040607 0.059749 0.275295 158 172 183
-0.041335 0.060232 0.273240 155 169 180
-0.042896 0.060335 0.271665 155 172 182
-0.044454 0.060436 0.270102 154 171 181
-0.045177 0.060916 0.268058 154 171 181
-0.045900 0.061395 0.266015 153 170 180
-0.047449 0.061491 0.264476 154 171 181
-0.049816 0.061197 0.263460 154 171 181
-0.050533 0.061672 0.261435 156 170 181
-0.052069 0.061759 0.259933 157 171 182
-0.053600 0.061843 0.258443 158 170 182
-0.055128 0.061924 0.256965 158 170 182
-0.057463 0.061609 0.256039 158 172 183
-0.058169 0.062077 0.254045 157 174 184
-0.059683 0.062150 0.252603 154 171 181
-0.061194 0.062219 0.251173 159 173 184
-0.061895 0.062685 0.249191 156 173 183
-0.063399 0.062750 0.247779 157 174 184
-0.064099 0.063214 0.245803 155 172 182
-0.064798 0.063678 0.243826 159 176 186
-0.067089 0.063333 0.243028 161 175 186
-0.067784 0.063794 0.241064 162 176 187
-0.069270 0.063848 0.239701 159 176 186
-0.070752 0.063899 0.238350 160 178 188
-0.072230 0.063947 0.237012 162 176 187
-0.072919 0.064404 0.235065 162 176 187
-0.074391 0.064448 0.233745 162 176 187
-0.075858 0.064489 0.232437 162 179 189
-0.076542 0.064943 0.230503 160 177 187
-0.078003 0.064980 0.229212 163 180 190
-0.079459 0.065014 0.227934 164 178 187
-0.080140 0.065465 0.226012 167 180 189
-0.081590 0.065495 0.224752 164 178 187
-0.083035 0.065522 0.223505 166 179 188
-0.083711 0.065970 0.221595 165 178 187
-0.085151 0.065992 0.220365 167 180 189
-0.085824 0.066439 0.218462 168 182 191
-0.087257 0.066458 0.217250 164 181 189
-0.089442 0.066043 0.216749 163 182 189
-0.090110 0.066486 0.214864 167 184 192
-0.090777 0.066928 0.212978 185 197 209
-0.014538 0.060249 0.302536 155 167 181
-0.017041 0.060034 0.301128 154 166 180
-0.018668 0.060176 0.299363 156 168 182
-0.020290 0.060314 0.297611 154 166 180
-0.021909 0.060450 0.295870 155 167 181
-0.023523 0.060583 0.294141 155 167 181
-0.025133 0.060714 0.292425 154 166 180
-0.026738 0.060841 0.290720 156 168 182
-0.027485 0.061336 0.288611 154 166 180
-0.029084 0.061459 0.286924 156 168 180
-0.030679 0.061580 0.285250 155 167 179
-0.032269 0.061697 0.283589 156 168 180
-0.033855 0.061812 0.281939 159 169 181
-0.035437 0.061923 0.280301 159 169 181
-0.037015 0.062032 0.278676 157 169 181
-0.038588 0.062138 0.277062 158 168 180
-0.040157 0.062241 0.275461 158 170 182
-0.041722 0.062342 0.273872 155 169 180
-0.042449 0.062824 0.271817 155 169 180
-0.044007 0.062920 0.270246 154 171 181
-0.044733 0.063401 0.268196 154 171 181
-0.046285 0.063493 0.266644 154 171 181
-0.047832 0.063582 0.265103 154 171 181
-0.049375 0.063668 0.263575 157 171 182
-0.050914 0.063751 0.262058 154 171 181
-0.051631 0.064227 0.260033 156 173 183
-0.053164 0.064306 0.258535 157 171 182
-0.054692 0.064382 0.257049 159 171 183
-0.057027 0.064056 0.256114 156 170 181
-0.058545 0.064125 0.254658 157 171 182
-0.060058 0.064191 0.253215 156 170 181
-0.060762 0.064658 0.251226 158 172 183
-0.062268 0.064720 0.249801 158 172 185
-0.062970 0.065185 0.247818 161 175 186
-0.063672 0.065651 0.245835 160 174 185
-0.065170 0.065707 0.244434 161 175 186
-0.066664 0.065760 0.243045 161 173 185
-0.068154 0.065811 0.241668 161 175 186
-0.069639 0.065858 0.240303 160 174 185
-0.070332 0.066318 0.238345 163 177 188
-0.071811 0.066362 0.236999 162 174 186
-0.073286 0.066402 0.235664 166 178 190
-0.074756 0.066440 0.234342 162 176 187
-0.076222 0.066475 0.233031 162 179 189
-0.076906 0.066929 0.231097 161 179 189
-0.078366 0.066959 0.229805 161 179 189
-0.079048 0.067412 0.227877 162 180 190
-0.080501 0.067438 0.226603 163 180 188
-0.081950 0.067462 0.225342 162 179 187
-0.082628 0.067911 0.223426 161 178 186
-0.084071 0.067931 0.222182 166 180 189
-0.084747 0.068379 0.220273 165 179 188
-0.086183 0.068394 0.219047 168 181 190
-0.087614 0.068406 0.217834 164 178 187
-0.089042 0.068415 0.216633 169 183 192
-0.089711 0.068859 0.214741 169 183 192
-0.091132 0.068864 0.213558 182 196 205
-0.014944 0.062465 0.303200 154 166 180
-0.016577 0.062604 0.301415 153 165 179
-0.018205 0.062741 0.299642 154 166 180
-0.020692 0.062505 0.298267 154 166 180
-0.022309 0.062635 0.296524 151 163 175
-0.023922 0.062762 0.294794 155 167 179
-0.025531 0.062886 0.293076 153 165 177
-0.026280 0.063383 0.290960 155 167 179
-0.027882 0.063502 0.289260 154 166 178
-0.028629 0.063998 0.287150 157 169 181
-0.030225 0.064113 0.285468 155 167 179
-0.031816 0.064226 0.283798 155 167 179
-0.033403 0.064335 0.282140 158 170 182
-0.034986 0.064442 0.280495 156 168 180
-0.036565 0.064546 0.278861 155 169 180
-0.038139 0.064648 0.277240 155 167 179
-0.039709 0.064746 0.275631 155 167 179
-0.041275 0.064842 0.274034 155 167 179
-0.042004 0.065325 0.271972 155 169 180
-0.043564 0.065417 0.270393 156 170 181
-0.045119 0.065505 0.268827 155 169 180
-0.046669 0.065591 0.267272 157 171 182
-0.048216 0.065674 0.265730 155 169 180
-0.048937 0.066152 0.263693 158 170 182
-0.050477 0.066230 0.262168 153 170 180
-0.052012 0.066306 0.260656 159 173 184
-0.052729 0.066781 0.258631 158 170 182
-0.055071 0.066448 0.257668 159 171 183
-0.056593 0.066516 0.256192 156 168 180
-0.058112 0.066580 0.254729 156 170 181
-0.059626 0.066641 0.253277 157 171 182
-0.060332 0.067109 0.251282 161 173 185
-0.061840 0.067166 0.249849 157 169 181
-0.062544 0.067633 0.247860 161 173 185
-0.064045 0.067686 0.246445 161 173 185
-0.065542 0.067736 0.245042 163 175 187
-0.066242 0.068200 0.243066 161 173 185
-0.067732 0.068246 0.241681 162 174 186
-0.069219 0.068289 0.240308 164 176 188
-0.069914 0.068750 0.238344 163 176 185
-0.071394 0.068788 0.236989 162 174 186
-0.072869 0.068824 0.235647 164 176 188
-0.074341 0.068857 0.234316 163 175 187
-0.075808 0.068887 0.232998 166 180 191
-0.077270 0.068914 0.231692 162 176 187
-0.078729 0.068939 0.230398 164 178 189
-0.079411 0.069391 0.228470 166 180 191
-0.080863 0.069411 0.227195 166 178 190
-0.081544 0.069862 0.225273 161 178 186
-0.082989 0.069878 0.224015 164 181 189
-0.084430 0.069891 0.222770 163 180 188
-0.085106 0.070340 0.220860 165 182 190
-0.085782 0.070788 0.218950 164 178 187
-0.087215 0.070795 0.217729 165 182 190
-0.088643 0.070800 0.216520 162 181 188
-0.090067 0.070801 0.215323 169 186 194
-0.090737 0.071245 0.213431 185 199 208
-0.016115 0.065187 0.301706 149 161 175
-0.018609 0.064945 0.300302 152 164 178
-0.020231 0.065073 0.298540 153 165 179
-0.021849 0.065197 0.296789 152 164 178
-0.023463 0.065319 0.295051 153 165 179
-0.025073 0.065439 0.293325 152 164 178
-0.026678 0.065555 0.291611 155 167 181
-0.027427 0.066052 0.289495 155 167 179
-0.028176 0.066548 0.287379 154 166 178
-0.029773 0.066659 0.285689 154 166 178
-0.031365 0.066767 0.284011 156 168 180
-0.032953 0.066872 0.282345 156 168 182
-0.034537 0.066974 0.280692 155 169 182
-0.036117 0.067073 0.279051 156 170 183
-0.037692 0.067170 0.277421 156 168 182
-0.039263 0.067263 0.275804 156 168 180
-0.040830 0.067354 0.274199 156 168 180
-0.042392 0.067442 0.272606 156 168 180
-0.043122 0.067926 0.270545 157 169 181
-0.044678 0.068009 0.268970 157 169 181
-0.046230 0.068090 0.267408 157 169 181
-0.047777 0.068168 0.265857 157 169 181
-0.049320 0.068243 0.264319 158 170 182
-0.050859 0.068315 0.262793 157 169 181
-0.051578 0.068792 0.260762 161 173 185
-0.053110 0.068860 0.259254 157 169 181
-0.054638 0.068925 0.257758 157 169 181
-0.056162 0.068987 0.256274 158 170 182
-0.058489 0.068634 0.255344 159 171 183
-0.060002 0.068689 0.253891 157 169 181
-0.060708 0.069157 0.251896 160 172 184
-0.061414 0.069625 0.249901 158 171 180
-0.062918 0.069675 0.248472 160 173 182
-0.063622 0.070142 0.246483 162 172 182
-0.065120 0.070187 0.245072 164 174 184
-0.066614 0.070229 0.243674 161 173 185
-0.068103 0.070269 0.242287 162 174 186
-0.068801 0.070731 0.240316 162 175 184
-0.070284 0.070766 0.238948 166 176 186
-0.071763 0.070799 0.237592 163 176 185
-0.073237 0.070828 0.236247 164 177 186
-0.074707 0.070855 0.234915 164 177 186
-0.076173 0.070879 0.233595 164 177 186
-0.076860 0.071334 0.231655 163 176 185
-0.078319 0.071354 0.230353 165 178 187
-0.079774 0.071371 0.229063 165 178 187
-0.081225 0.071385 0.227786 167 180 189
-0.081905 0.071836 0.225864 167 180 189
-0.083350 0.071845 0.224604 166 179 188
-0.084028 0.072295 0.222689 169 183 192
-0.084706 0.072745 0.220773 166 180 189
-0.086142 0.072749 0.219538 167 181 190
-0.087573 0.072750 0.218315 166 183 191
-0.088247 0.073196 0.216411 166 183 191
-0.088921 0.073643 0.214507 171 185 194
-0.018149 0.067529 0.300587 151 163 177
-0.019772 0.067652 0.298816 148 160 172
-0.022251 0.067388 0.297446 151 160 175
-0.023864 0.067504 0.295705 152 159 177
-0.024617 0.068004 0.293577 151 163 177
-0.026223 0.068115 0.291855 154 168 181
-0.026974 0.068613 0.289733 152 166 179
-0.028574 0.068721 0.288029 153 165 179
-0.029323 0.069217 0.285914 152 164 180
-0.030917 0.069320 0.284228 152 164 180
-0.032506 0.069420 0.282554 154 168 181
-0.034091 0.069518 0.280893 151 163 177
-0.035671 0.069612 0.279244 156 166 178
-0.037248 0.069704 0.277606 157 165 178
-0.038820 0.069793 0.275981 157 169 181
-0.040387 0.069879 0.274368 155 169 180
-0.041951 0.069962 0.272768 153 167 180
-0.043510 0.070042 0.271179 156 170 183
-0.045065 0.070119 0.269603 156 168 180
-0.046615 0.070194 0.268038 158 170 184
-0.048162 0.070266 0.266486 156 168 180
-0.048885 0.070745 0.264443 158 171 180
-0.050425 0.070813 0.262909 155 168 177
-0.051146 0.071291 0.260871 158 171 180
-0.052679 0.071354 0.259356 158 171 180
-0.054208 0.071414 0.257852 160 170 180
-0.055733 0.071472 0.256360 157 170 179
-0.057253 0.071526 0.254881 158 171 180
-0.058770 0.071578 0.253413 159 169 179
-0.060282 0.071627 0.251958 162 172 182
-0.061789 0.071673 0.250515 163 173 182
-0.062495 0.072141 0.248520 162 172 181
-0.063996 0.072183 0.247095 162 172 182
-0.064700 0.072650 0.245106 161 171 180
-0.066195 0.072688 0.243700 164 174 184
-0.067686 0.072722 0.242305 163 173 183
-0.069172 0.072754 0.240923 162 175 184
-0.070654 0.072783 0.239552 163 176 185
-0.071349 0.073244 0.237588 164 174 183
-0.072824 0.073269 0.236236 163 176 184
-0.074295 0.073291 0.234895 164 177 186
-0.075762 0.073310 0.233568 165 178 187
-0.077225 0.073326 0.232252 162 175 184
-0.078683 0.073340 0.230948 166 179 188
-0.080137 0.073350 0.229656 164 177 186
-0.081587 0.073358 0.228377 168 181 190
-0.082267 0.073809 0.226455 168 178 188
-0.082947 0.074260 0.224533 167 180 189
-0.084388 0.074262 0.223278 166 179 188
-0.085067 0.074712 0.221362 167 181 190
-0.085745 0.075161 0.219446 167 180 189
-0.087177 0.075158 0.218215 169 183 192
-0.088605 0.075151 0.216996 169 183 192
-0.089279 0.075598 0.215093 174 187 196
-0.029722 0.071390 0.286564 153 163 173
-0.031314 0.071486 0.284877 152 162 172
-0.032902 0.071580 0.283201 154 167 176
-0.033647 0.072074 0.281098 151 164 173
-0.036065 0.071760 0.279887 154 166 178
-0.036806 0.072251 0.277795 151 165 176
-0.038379 0.072335 0.276162 154 166 178
-0.040778 0.072007 0.275006 156 168 180
-0.042340 0.072084 0.273404 154 166 178
-0.043072 0.072570 0.271336 158 168 178
-0.044628 0.072642 0.269752 156 166 178
-0.046179 0.072712 0.268179 157 169 181
-0.047726 0.072779 0.266619 157 167 177
-0.048452 0.073260 0.264570 159 168 177
-0.049993 0.073322 0.263028 159 169 178
-0.050716 0.073802 0.260985 159 169 179
-0.052250 0.073860 0.259461 157 170 179
-0.053780 0.073916 0.257949 159 169 178
-0.056113 0.073545 0.256981 159 169 179
-0.057632 0.073593 0.255500 160 170 179
-0.059147 0.073639 0.254030 160 170 179
-0.060658 0.073681 0.252573 163 173 182
-0.061366 0.074151 0.250573 161 171 180
-0.062871 0.074189 0.249134 162 172 181
-0.063577 0.074657 0.247139 161 171 181
-0.065075 0.074692 0.245718 161 171 180
-0.066568 0.074723 0.244310 162 172 181
-0.068058 0.074752 0.242913 165 175 184
-0.068757 0.075215 0.240936 164 174 183
-0.070240 0.075240 0.239558 165 175 184
-0.071719 0.075261 0.238192 165 175 184
-0.073193 0.075280 0.236838 163 176 184
-0.074663 0.075295 0.235496 161 174 183
-0.076129 0.075308 0.234166 164 177 186
-0.077590 0.075318 0.232848 163 176 185
-0.079047 0.075325 0.231543 166 179 188
-0.080500 0.075330 0.230249 164 177 186
-0.081182 0.075782 0.228321 166 179 188
-0.082629 0.075782 0.227046 166 179 188
-0.083309 0.076233 0.225124 168 181 190
-0.083989 0.076684 0.223202 165 179 188
-0.084670 0.077135 0.221280 163 177 186
-0.086105 0.077128 0.220035 165 179 188
-0.086784 0.077578 0.218120 166 183 191
-0.088213 0.077567 0.216893 167 184 192
-0.089638 0.077552 0.215678 176 190 199
-0.040339 0.074551 0.275181 151 161 173
-0.041902 0.074623 0.273571 152 162 172
-0.043461 0.074692 0.271972 156 166 176
-0.045016 0.074759 0.270386 154 166 178
-0.046566 0.074822 0.268812 153 165 177
-0.047294 0.075304 0.266756 153 165 177
-0.048838 0.075364 0.265200 154 164 174
-0.050377 0.075420 0.263656 156 165 174
-0.051100 0.075900 0.261613 160 170 180
-0.052634 0.075952 0.260087 160 170 180
-0.054163 0.076001 0.258574 159 169 178
-0.055687 0.076048 0.257072 158 168 177
-0.057208 0.076091 0.255583 158 168 177
-0.058724 0.076132 0.254106 162 172 181
-0.060235 0.076170 0.252641 162 172 181
-0.061743 0.076205 0.251188 161 171 180
-0.062451 0.076675 0.249187 161 171 180
-0.063952 0.076705 0.247752 160 170 180
-0.065449 0.076733 0.246330 161 171 180
-0.066941 0.076758 0.244919 162 170 181
-0.067643 0.077224 0.242937 162 170 181
-0.069129 0.077245 0.241544 162 172 182
-0.070611 0.077263 0.240164 164 174 184
-0.071308 0.077725 0.238194 165 175 184
-0.072784 0.077739 0.236832 162 175 183
-0.074255 0.077750 0.235482 164 177 186
-0.075721 0.077758 0.234144 163 176 185
-0.077184 0.077763 0.232819 164 177 186
-0.078642 0.077765 0.231505 165 178 187
-0.080096 0.077765 0.230204 162 175 184
-0.081545 0.077761 0.228914 167 180 189
-0.082228 0.078214 0.226986 166 179 188
-0.082910 0.078666 0.225058 166 179 188
-0.084351 0.078657 0.223793 167 181 190
-0.085031 0.079108 0.221872 167 181 190
-0.085712 0.079560 0.219950 166 180 189
-0.087144 0.079545 0.218709 165 182 190
-0.087822 0.079994 0.216793 166 183 191
-0.089248 0.079976 0.215570 177 191 200
-0.051485 0.077997 0.262242 153 166 175
-0.052208 0.078477 0.260198 155 168 177
-0.053738 0.078521 0.258677 156 166 175
-0.055264 0.078563 0.257168 158 168 177
-0.056785 0.078602 0.255670 157 167 176
-0.058302 0.078638 0.254185 156 166 175
-0.059815 0.078671 0.252712 160 169 178
-0.061324 0.078701 0.251251 159 168 177
-0.062828 0.078729 0.249803 160 169 178
-0.064328 0.078753 0.248366 161 169 180
-0.065823 0.078775 0.246941 161 170 179
-0.066527 0.079242 0.244953 161 170 179
-0.068016 0.079259 0.243547 162 172 181
-0.068718 0.079725 0.241564 161 171 180
-0.070201 0.079738 0.240176 162 172 181
-0.071679 0.079748 0.238800 164 175 181
-0.072377 0.080211 0.236829 163 174 180
-0.073849 0.080217 0.235472 164 177 185
-0.075316 0.080220 0.234126 166 176 185
-0.077550 0.079761 0.233417 163 176 185
-0.079007 0.079757 0.232102 164 177 186
-0.080460 0.079750 0.230799 165 178 187
-0.081908 0.079741 0.229507 165 178 187
-0.082591 0.080193 0.227579 163 176 185
-0.083273 0.080646 0.225651 168 181 190
-0.083956 0.081098 0.223723 167 180 189
-0.085393 0.081082 0.222463 167 180 189
-0.086074 0.081533 0.220541 170 183 192
-0.086754 0.081984 0.218619 168 182 191
-0.088183 0.081961 0.217382 169 183 192
-0.088861 0.082411 0.215466 180 194 203
-0.062412 0.081233 0.249862 154 164 174
-0.063913 0.081252 0.248417 157 167 177
-0.065409 0.081269 0.246985 157 166 175
-0.066901 0.081283 0.245565 160 169 176
-0.067605 0.081750 0.243576 161 170 177
-0.069091 0.081760 0.242174 163 173 182
-0.070573 0.081767 0.240784 156 169 177
-0.071273 0.082231 0.238807 163 172 181
-0.072748 0.082234 0.237436 163 173 182
-0.073445 0.082696 0.235465 162 171 178
-0.074914 0.082694 0.234111 164 175 181
-0.077147 0.082225 0.233393 168 177 186
-0.078605 0.082216 0.232070 167 176 185
-0.080059 0.082204 0.230758 169 179 188
-0.081508 0.082190 0.229459 164 179 184
-0.082193 0.082644 0.227525 161 174 183
-0.083636 0.082625 0.226245 164 176 188
-0.084318 0.083078 0.224317 165 178 187
-0.085001 0.083530 0.222389 171 181 190
-0.086435 0.083506 0.221132 171 181 190
-0.087116 0.083957 0.219210 168 181 189
-0.088544 0.083928 0.217972 167 184 192
-0.089967 0.083897 0.216745 184 199 206
-0.073816 0.084719 0.236071 161 172 178
-0.075284 0.084711 0.234716 160 170 179
-0.076747 0.084701 0.233372 159 174 181
-0.078972 0.084214 0.232668 162 175 181
-0.079661 0.084671 0.230722 166 177 183
-0.081111 0.084652 0.229415 165 174 181
-0.081798 0.085107 0.227475 164 171 177
-0.083242 0.085084 0.226186 163 172 179
-0.084681 0.085057 0.224910 166 175 184
-0.085364 0.085510 0.222982 167 177 186
-0.086797 0.085479 0.221723 165 178 184
-0.087477 0.085930 0.219801 171 180 189
-0.088904 0.085895 0.218561 172 185 193
-0.089582 0.086345 0.216645 187 200 206
-0.084290 0.087523 0.224847 162 173 179
-0.085727 0.087489 0.223575 167 178 182
-0.087159 0.087452 0.222314 162 175 181
-0.087839 0.087903 0.220392 167 176 185
-0.088519 0.088355 0.218470 174 184 193
-0.089943 0.088312 0.217234 185 194 199
-0.015445 -0.012398 0.223889 124 164 189
-0.017073 -0.012297 0.225215 80 117 146
-0.017834 -0.012488 0.226993 81 120 153
-0.019470 -0.012389 0.228336 178 222 251
-0.020233 -0.012582 0.230121 132 177 208
-0.019993 -0.013545 0.234525 80 117 146
-0.019866 -0.014024 0.236710 136 179 211
-0.017957 -0.015078 0.239694 176 220 255
-0.011867 -0.008920 0.212776 176 219 251
-0.011777 -0.009415 0.215042 121 156 188
-0.011683 -0.009908 0.217296 88 121 152
-0.009868 -0.011000 0.220477 84 120 146
-0.009758 -0.011489 0.222695 86 128 153
-0.011369 -0.011379 0.223987 115 156 186
-0.012984 -0.011269 0.225290 171 212 240
-0.014605 -0.011161 0.226605 175 218 253
-0.016231 -0.011055 0.227933 168 212 249
-0.016989 -0.011246 0.229705 177 222 255
-0.016872 -0.011733 0.231906 137 182 215
-0.015872 -0.012514 0.234516 89 134 167
-0.014861 -0.013293 0.237103 108 154 187
-0.014723 -0.013775 0.239256 166 205 236
-0.013695 -0.014549 0.241802 180 221 251
-0.012657 -0.015321 0.244323 107 150 182
-0.012499 -0.015798 0.246429 91 127 159
-0.014122 -0.015691 0.247750 106 138 163
-0.011132 -0.007184 0.213278 109 135 160
-0.011045 -0.007684 0.215542 185 221 253
-0.009247 -0.008796 0.218741 171 216 249
-0.007435 -0.009905 0.221905 168 211 243
-0.008180 -0.010093 0.223648 83 120 149
-0.002903 -0.012416 0.228582 112 151 180
-0.001762 -0.013694 0.233317 138 183 214
-0.002482 -0.013875 0.235000 125 164 193
-0.002332 -0.014359 0.237116 42 75 106
-0.003922 -0.014239 0.238368 28 57 87
-0.005518 -0.014119 0.239632 25 49 75
-0.008875 -0.013400 0.240079 23 45 68
-0.009605 -0.013584 0.241786 24 52 76
-0.010335 -0.013768 0.243494 105 137 162
-0.011065 -0.013952 0.245201 102 136 161
-0.011796 -0.014136 0.246909 102 136 163
-0.013417 -0.014023 0.248232 98 135 161
-0.014149 -0.014208 0.249945 56 83 110
0.006076 -0.012889 0.229384 105 139 167
0.005368 -0.013067 0.231038 103 138 166
0.003803 -0.012935 0.232238 105 141 167
0.002233 -0.012804 0.233450 103 140 167
0.000657 -0.012674 0.234674 113 145 170
-0.000923 -0.012546 0.235910 15 37 58
-0.002509 -0.012418 0.237157 14 31 49
-0.003229 -0.012600 0.238841 4 23 40
-0.004822 -0.012475 0.240106 23 45 66
-0.007296 -0.012044 0.240971 93 118 138
-0.008902 -0.011922 0.242266 105 133 155
-0.009632 -0.012106 0.243973 99 133 160
-0.010363 -0.012290 0.245681 109 140 168
-0.011979 -0.012171 0.247000 96 130 157
-0.012711 -0.012356 0.248713 96 133 159
-0.014335 -0.012238 0.250050 68 100 125
0.006757 -0.011279 0.229849 99 131 156
0.006049 -0.011457 0.231503 101 135 162
0.004486 -0.011319 0.232705 101 135 162
0.002918 -0.011182 0.233918 102 136 164
0.001345 -0.011047 0.235144 100 134 159
-0.000233 -0.010913 0.236381 111 139 163
-0.001816 -0.010780 0.237630 92 119 140
-0.003404 -0.010648 0.238891 32 59 80
-0.004997 -0.010517 0.240164 13 38 60
-0.006596 -0.010388 0.241449 12 34 57
-0.008199 -0.010260 0.242746 15 34 49
-0.008929 -0.010444 0.244453 14 32 46
-0.010541 -0.010318 0.245768 18 34 49
-0.011273 -0.010503 0.247481 61 83 104
-0.012892 -0.010379 0.248813 100 134 161
-0.013627 -0.010565 0.250533 82 116 141
0.006590 -0.009346 0.229851 106 137 158
0.005880 -0.009525 0.231511 102 136 161
0.004317 -0.009381 0.232721 5 33 57
0.002749 -0.009239 0.233942 18 39 58
0.001175 -0.009099 0.235175 19 36 52
-0.000403 -0.008959 0.236420 15 31 46
-0.001123 -0.009141 0.238104 15 29 40
-0.002709 -0.009003 0.239366 14 26 40
-0.004299 -0.008867 0.240641 13 24 30
-0.005895 -0.008732 0.241927 11 24 32
-0.007496 -0.008598 0.243226 11 27 40
-0.008227 -0.008783 0.244933 7 23 38
-0.009835 -0.008651 0.246249 16 25 32
-0.011449 -0.008520 0.247577 15 36 53
-0.012184 -0.008706 0.249296 99 134 162
-0.013805 -0.008577 0.250642 97 131 158
0.007983 -0.007551 0.228658 26 42 55
0.007273 -0.007730 0.230318 111 138 157
0.005715 -0.007580 0.231523 105 139 164
0.004152 -0.007432 0.232740 20 45 67
0.002584 -0.007285 0.233968 14 26 38
0.001866 -0.007466 0.235646 8 22 33
0.000290 -0.007321 0.236893 2 21 36
-0.001290 -0.007177 0.238151 10 24 35
-0.002876 -0.007034 0.239422 16 24 37
-0.004467 -0.006893 0.240704 16 25 32
-0.005195 -0.007076 0.242405 11 28 38
-0.006793 -0.006937 0.243705 104 130 153
-0.008397 -0.006798 0.245017 100 132 155
-0.010006 -0.006662 0.246341 14 28 39
-0.010741 -0.006847 0.248060 4 23 38
-0.012357 -0.006712 0.249402 101 136 164
-0.013979 -0.006578 0.250755 103 137 164
0.008666 -0.005935 0.229124 4 20 33
0.007956 -0.006114 0.230784 88 113 133
0.006401 -0.005959 0.231991 102 136 163
0.004840 -0.005805 0.233209 80 106 129
0.003274 -0.005652 0.234440 15 27 39
0.001704 -0.005500 0.235682 104 125 144
0.000984 -0.005682 0.237366 102 138 164
-0.000595 -0.005532 0.238626 3 26 40
-0.002178 -0.005384 0.239898 11 24 30
-0.003767 -0.005237 0.241182 11 22 26
-0.004494 -0.005420 0.242884 15 28 37
-0.006091 -0.005275 0.244185 105 137 160
-0.007692 -0.005131 0.245499 98 134 160
-0.009298 -0.004988 0.246824 13 31 43
-0.010909 -0.004847 0.248161 7 23 36
-0.012526 -0.004707 0.249510 104 135 164
-0.013266 -0.004893 0.251241 107 143 169
-0.014007 -0.005080 0.252973 53 84 105
0.007799 -0.004158 0.230793 69 94 114
0.007087 -0.004337 0.232459 104 138 165
0.005528 -0.004177 0.233679 116 146 170
0.003965 -0.004019 0.234911 14 28 39
0.002397 -0.003861 0.236155 48 67 84
0.000823 -0.003705 0.237411 104 136 161
-0.000755 -0.003551 0.238679 34 61 78
-0.002339 -0.003397 0.239958 19 28 37
-0.003066 -0.003581 0.241660 12 26 29
-0.004657 -0.003429 0.242957 13 28 35
-0.006254 -0.003279 0.244267 104 136 161
-0.007855 -0.003129 0.245588 98 134 160
-0.009461 -0.002982 0.246921 11 30 47
-0.011073 -0.002835 0.248265 10 26 39
-0.011813 -0.003022 0.249997 101 135 162
-0.013432 -0.002877 0.251359 99 135 161
-0.015056 -0.002734 0.252734 1 22 43
0.006932 -0.002370 0.232477 104 138 165
0.005373 -0.002205 0.233705 113 145 170
0.003810 -0.002041 0.234945 15 29 40
0.002242 -0.001879 0.236196 7 28 47
0.001519 -0.002061 0.237886 103 138 166
-0.000057 -0.001900 0.239155 91 122 143
-0.001638 -0.001741 0.240437 19 29 41
-0.003224 -0.001583 0.241730 14 27 33
-0.003955 -0.001767 0.243437 20 31 35
-0.005548 -0.001611 0.244748 121 147 170
-0.008013 -0.001116 0.245680 111 141 165
-0.009620 -0.000964 0.247021 11 30 45
-0.010360 -0.001150 0.248752 12 28 43
-0.011974 -0.000999 0.250110 106 137 165
-0.012717 -0.001187 0.251847 102 138 164
0.008335 -0.000562 0.231275 99 122 140
0.006782 -0.000391 0.232499 107 138 166
0.005223 -0.000221 0.233734 104 139 167
0.003660 -0.000052 0.234981 16 32 45
0.002937 -0.000234 0.236671 7 25 39
0.001366 -0.000067 0.237936 107 137 163
-0.000210 0.000099 0.239213 68 98 124
-0.001791 0.000263 0.240502 107 135 156
-0.002522 0.000079 0.242209 82 103 120
-0.004110 0.000241 0.243516 19 26 34
-0.005704 0.000403 0.244835 13 29 42
-0.007303 0.000563 0.246165 16 32 45
-0.008907 0.000721 0.247507 12 28 41
-0.009648 0.000535 0.249238 18 30 44
-0.011259 0.000691 0.250598 104 135 163
-0.012876 0.000847 0.251970 105 142 169
-0.013621 0.000659 0.253713 36 58 81
-0.016124 0.001154 0.254749 112 135 149
0.008190 0.001423 0.231292 104 127 145
0.007472 0.001242 0.232970 104 138 165
0.005916 0.001418 0.234207 102 137 165
0.004355 0.001593 0.235456 14 35 52
0.002789 0.001766 0.236717 16 30 41
0.001218 0.001938 0.237990 14 30 43
0.000490 0.001755 0.239691 8 29 50
-0.001088 0.001925 0.240982 100 140 166
-0.002672 0.002094 0.242284 116 141 171
-0.004261 0.002261 0.243598 12 28 41
-0.005855 0.002428 0.244924 15 24 39
-0.007454 0.002593 0.246262 20 31 37
-0.008194 0.002406 0.247994 14 27 36
-0.009801 0.002569 0.249349 20 33 49
-0.011413 0.002731 0.250717 102 137 165
-0.012158 0.002543 0.252460 105 141 167
-0.013778 0.002703 0.253845 173 190 208
-0.039137 0.032812 0.169294 77 112 134
-0.035421 0.029161 0.179756 158 198 234
-0.035498 0.028569 0.182329 153 197 236
0.007329 0.003238 0.232996 107 139 164
0.005773 0.003419 0.234241 105 140 168
0.004212 0.003599 0.235498 16 39 57
0.002646 0.003778 0.236766 15 29 38
0.001918 0.003594 0.238468 15 29 38
0.000345 0.003771 0.239754 8 26 40
-0.001234 0.003946 0.241052 99 139 165
-0.002818 0.004120 0.242362 103 138 170
-0.003553 0.003935 0.244081 101 137 161
-0.005145 0.004107 0.245409 98 125 146
-0.006741 0.004278 0.246749 20 30 39
-0.008343 0.004447 0.248100 19 30 34
-0.009086 0.004260 0.249837 19 29 38
-0.010695 0.004428 0.251207 111 143 168
-0.012310 0.004594 0.252588 105 140 168
-0.036575 0.034715 0.168315 162 199 225
-0.035096 0.033352 0.172016 155 201 235
-0.033603 0.031992 0.175682 156 203 245
-0.032093 0.030637 0.179313 159 203 250
-0.032971 0.030416 0.181364 158 205 251
-0.033045 0.029819 0.183924 158 205 249
-0.032308 0.028847 0.186975 158 205 249
0.007192 0.005246 0.233026 109 139 165
0.006469 0.005064 0.234716 104 141 170
0.004910 0.005249 0.235974 11 36 56
0.003347 0.005434 0.237244 19 33 44
0.001778 0.005617 0.238526 15 28 37
0.001048 0.005433 0.240234 10 29 43
-0.001375 0.005979 0.241126 101 138 164
-0.002110 0.005794 0.242845 101 137 169
-0.003697 0.005972 0.244169 97 139 163
-0.005288 0.006149 0.245504 106 142 168
-0.006885 0.006325 0.246851 17 30 46
-0.007628 0.006138 0.248588 14 28 37
-0.009232 0.006312 0.249953 16 30 39
-0.010842 0.006485 0.251330 118 149 177
-0.012456 0.006656 0.252719 106 147 177
-0.034809 0.036990 0.166801 82 102 113
-0.034133 0.035993 0.169979 85 112 131
-0.032656 0.034614 0.173664 140 171 199
-0.027993 0.031703 0.179412 160 203 238
-0.026475 0.030334 0.183002 157 204 248
-0.026539 0.029735 0.185531 160 204 249
-0.029000 0.030282 0.186527 157 204 250
-0.023439 0.027013 0.192556 158 202 251
-0.021867 0.025659 0.196016 153 197 244
-0.021087 0.024688 0.198951 147 196 239
-0.021918 0.024478 0.200895 146 193 235
0.007059 0.007265 0.233059 114 144 168
0.006334 0.007083 0.234755 101 140 171
0.004775 0.007273 0.236021 3 30 51
0.003211 0.007463 0.237299 17 33 46
0.001642 0.007651 0.238588 15 28 37
0.000909 0.007466 0.240302 24 34 44
-0.000667 0.007652 0.241609 15 36 57
-0.002249 0.007837 0.242928 22 40 62
-0.003835 0.008021 0.244259 19 38 53
-0.005427 0.008203 0.245602 17 33 48
-0.006170 0.008016 0.247339 20 33 42
-0.007769 0.008197 0.248700 16 30 43
-0.008515 0.008009 0.250443 15 31 46
-0.010122 0.008187 0.251822 111 146 174
-0.011734 0.008364 0.253212 103 144 176
-0.013351 0.008540 0.254614 157 206 247
-0.016960 0.027419 0.191718 156 203 247
-0.016195 0.026434 0.194674 157 204 250
-0.017021 0.026226 0.196606 156 203 247
-0.017848 0.026017 0.198539 156 203 247
-0.017869 0.025423 0.200959 150 197 239
-0.017076 0.024445 0.203849 151 196 237
0.006931 0.009296 0.233096 108 138 162
0.006203 0.009113 0.234797 105 144 175
0.004644 0.009309 0.236071 17 45 69
0.003080 0.009503 0.237356 17 34 44
0.002347 0.009318 0.239070 14 29 36
0.000776 0.009511 0.240373 15 30 35
0.000041 0.009326 0.242092 15 29 38
-0.001539 0.009516 0.243413 14 30 45
-0.003123 0.009706 0.244746 7 24 40
-0.004712 0.009894 0.246090 26 49 67
-0.006306 0.010081 0.247447 94 122 144
-0.007052 0.009893 0.249190 98 132 160
-0.008654 0.010078 0.250564 99 134 162
-0.010261 0.010262 0.251950 99 138 169
-0.011873 0.010444 0.253348 101 142 172
-0.013490 0.010625 0.254758 158 203 242
-0.013779 0.028130 0.193793 165 205 240
-0.013808 0.027528 0.196224 156 201 243
-0.013831 0.026928 0.198642 158 202 249
-0.013849 0.026330 0.201049 158 202 249
-0.013059 0.025341 0.203930 158 202 247
-0.010646 0.023573 0.207747 157 202 244
-0.009831 0.022590 0.210568 151 199 237
-0.009005 0.021610 0.213366 136 187 218
-0.008983 0.021022 0.215678 85 129 156
0.007631 0.010952 0.233574 87 119 144
0.006077 0.011155 0.234843 103 142 171
0.005347 0.010970 0.236551 64 98 123
0.003785 0.011171 0.237838 9 36 57
0.002219 0.011370 0.239136 78 100 123
0.001484 0.011184 0.240856 102 129 156
-0.000091 0.011382 0.242172 102 132 156
-0.001670 0.011577 0.243501 98 132 157
-0.002410 0.011391 0.245232 48 75 104
-0.003997 0.011585 0.246578 2 26 50
-0.005589 0.011777 0.247936 3 33 57
-0.007186 0.011969 0.249306 97 136 165
-0.008788 0.012159 0.250688 97 138 168
-0.010395 0.012348 0.252082 94 133 164
-0.012007 0.012535 0.253487 95 136 164
-0.013625 0.012722 0.254905 166 206 241
-0.014383 0.012530 0.256678 190 229 255
-0.013407 0.011588 0.259125 175 218 253
-0.012196 0.029605 0.194843 96 124 145
-0.011430 0.028599 0.197767 158 197 230
-0.010655 0.027596 0.200668 153 197 236
-0.007474 0.025402 0.205016 154 201 243
-0.005870 0.024009 0.208336 147 195 235
-0.006661 0.023809 0.210186 138 186 222
-0.006646 0.023214 0.212508 133 180 210
-0.007435 0.023015 0.214352 127 177 202
-0.006601 0.022027 0.217117 121 167 191
-0.004944 0.020647 0.220312 110 146 172
0.007510 0.013001 0.233615 87 123 149
0.006780 0.012816 0.235323 103 142 171
0.005224 0.013023 0.236606 99 140 172
0.004491 0.012838 0.238319 94 137 169
0.002927 0.013043 0.239620 94 135 163
0.001357 0.013247 0.240932 8 40 65
-0.000217 0.013449 0.242256 10 27 45
-0.000957 0.013262 0.243987 15 22 38
-0.002539 0.013463 0.245329 15 25 37
-0.003282 0.013275 0.247066 8 24 40
-0.004871 0.013474 0.248426 26 53 74
-0.006466 0.013671 0.249798 89 126 152
-0.008066 0.013867 0.251181 113 154 182
-0.009670 0.014061 0.252577 120 164 193
-0.011280 0.014255 0.253984 125 169 198
-0.012036 0.014064 0.255751 157 200 234
-0.012791 0.013874 0.257518 176 214 253
-0.011818 0.012921 0.259956 177 216 255
-0.009101 0.011209 0.263031 177 216 255
-0.008972 0.010642 0.265086 170 209 248
-0.015571 0.011974 0.268731 174 216 255
-0.002726 0.025201 0.207983 143 187 214
-0.001116 0.023794 0.211268 140 187 215
-0.001895 0.023598 0.213088 139 189 216
-0.001870 0.022999 0.215379 141 187 213
-0.001839 0.022403 0.217658 135 185 208
-0.000995 0.021407 0.220384 131 179 202
0.000723 0.019422 0.225764 110 155 178
0.007394 0.015060 0.233660 101 137 163
0.006662 0.014876 0.235374 100 144 171
0.005929 0.014691 0.237087 96 140 169
0.004370 0.014902 0.238383 86 125 154
0.003634 0.014717 0.240103 52 87 117
0.002068 0.014926 0.241417 48 85 111
0.000496 0.015134 0.242743 90 122 147
-0.000244 0.014947 0.244474 100 131 160
-0.000985 0.014761 0.246205 107 142 174
-0.001725 0.014574 0.247936 113 150 179
-0.002466 0.014387 0.249668 113 152 183
-0.004053 0.014591 0.251029 122 165 199
-0.005645 0.014794 0.252402 123 169 202
-0.008945 0.015775 0.253072 124 171 201
-0.009698 0.015585 0.254832 126 173 201
